 -0.2976  0.0049  0.3649 155  15  55
 -0.6846 -0.0557  0.2657 155  15  55
 -0.2442  0.0077  0.4134 155  15  55
 -0.7510 -0.0501  0.2504 155  15  55
 -0.1406  0.0099  0.4254 155  15  55
 -0.7996 -0.0347  0.1684 155  15  55
 -0.0302 -0.0041  0.3180 155  15  55
 -0.7365 -0.0842  0.0678 155  15  55
 -0.1092  0.0658  0.1490 155  15  55
 -0.6428 -0.0519  0.0864 155  15  55
 -0.2369  0.0084  0.1599 155  15  55
 -0.6095 -0.0593  0.1242 155  15  55
 -0.2872  0.0122  0.2006 155  15  55
 -0.5978 -0.0607  0.1638 155  15  55
 -0.3127  0.0101  0.2453 155  15  55
 -0.6024 -0.0596  0.2019 155  15  55
 -0.3206  0.0066  0.2929 155  15  55
 -0.6230 -0.0578  0.2363 155  15  55
 -0.3102  0.0047  0.3441 155  15  55
 -0.6622 -0.0565  0.2619 155  15  55
 -0.2723  0.0060  0.3966 155  15  55
 -0.7231 -0.0535  0.2645 155  15  55
 -0.1893  0.0099  0.4320 155  15  55
 -0.7899 -0.0415  0.2122 155  15  55
 -0.0626  0.0036  0.3842 155  15  55
 -0.7827 -0.0405  0.0966 155  15  55
 -0.0383  0.0052  0.1999 155  15  55
 -0.6771 -0.0468  0.0639 155  15  55
 -0.1879  0.0057  0.1352 155  15  55
 -0.6230 -0.0582  0.0992 155  15  55
 -0.2650  0.0135  0.1726 155  15  55
 -0.5997 -0.0613  0.1400 155  15  55
 -0.3034  0.0124  0.2173 155  15  55
 -0.5952 -0.0608  0.1804 155  15  55
 -0.3213  0.0087  0.2643 155  15  55
 -0.6066 -0.0589  0.2184 155  15  55
 -0.3223  0.0052  0.3146 155  15  55
 -0.6351 -0.0573  0.2513 155  15  55
 -0.3021  0.0043  0.3689 155  15  55
 -0.6848 -0.0559  0.2714 155  15  55
 -0.2468  0.0074  0.4214 155  15  55
 -0.7564 -0.0501  0.2566 155  15  55
 -0.1357  0.0100  0.4374 155  15  55
 -0.8110 -0.0318  0.1675 155  15  55
 -0.0113 -0.0078  0.3203 155  15  55
 -0.6764 -0.1529  0.0572 155  15  55
 -0.2089  0.1482  0.1278 155  15  55
 -0.6238 -0.1036  0.1139 155  15  55
 -0.2740  0.0679  0.1925 155  15  55
 -0.6024 -0.0771  0.1571 155  15  55
 -0.3070  0.0295  0.2393 155  15  55
 -0.6028 -0.0643  0.1960 155  15  55
 -0.3183  0.0123  0.2861 155  15  55
 -0.6205 -0.0587  0.2308 155  15  55
 -0.3108  0.0057  0.3361 155  15  55
 -0.6564 -0.0565  0.2574 155  15  55
 -0.2777  0.0058  0.3875 155  15  55
 -0.7130 -0.0541  0.2637 155  15  55
 -0.2033  0.0095  0.4256 155  15  55
 -0.7791 -0.0441  0.2217 155  15  55
 -0.0838  0.0060  0.3944 155  15  55
 -0.7870 -0.0360  0.1147 155  15  55
 -0.0350 -0.0017  0.2292 155  15  55
 -0.6911 -0.0620  0.0645 155  15  55
 -0.1704  0.0279  0.1380 155  15  55
 -0.6298 -0.0606  0.0961 155  15  55
 -0.2561  0.0174  0.1700 155  15  55
 -0.6034 -0.0621  0.1357 155  15  55
 -0.2978  0.0141  0.2131 155  15  55
 -0.5967 -0.0612  0.1755 155  15  55
 -0.3179  0.0097  0.2590 155  15  55
 -0.6060 -0.0592  0.2132 155  15  55
 -0.3208  0.0058  0.3081 155  15  55
 -0.6320 -0.0574  0.2462 155  15  55
 -0.3035  0.0045  0.3608 155  15  55
 -0.6781 -0.0560  0.2675 155  15  55
 -0.2540  0.0071  0.4125 155  15  55
 -0.7454 -0.0513  0.2581 155  15  55
 -0.1529  0.0102  0.4341 155  15  55
 -0.8035 -0.0353  0.1815 155  15  55
 -0.0285 -0.0033  0.3404 155  15  55
 -0.7520 -0.0837  0.0680 155  15  55
 -0.0861  0.0677  0.1513 155  15  55
 -0.6426 -0.0466  0.0816 155  15  55
 -0.2359  0.0017  0.1536 155  15  55
 -0.6080 -0.0576  0.1209 155  15  55
 -0.2881  0.0102  0.1961 155  15  55
 -0.5955 -0.0603  0.1615 155  15  55
 -0.3146  0.0094  0.2418 155  15  55
 -0.5995 -0.0596  0.2006 155  15  55
 -0.3236  0.0064  0.2902 155  15  55
 -0.6195 -0.0580  0.2363 155  15  55
 -0.3145  0.0043  0.3425 155  15  55
 -0.6584 -0.0566  0.2639 155  15  55
 -0.2784  0.0055  0.3972 155  15  55
 -0.7202 -0.0539  0.2697 155  15  55
 -0.1962  0.0097  0.4379 155  15  55
 -0.7925 -0.0420  0.2205 155  15  55
 -0.0621  0.0043  0.3984 155  15  55
 -0.7934 -0.0360  0.0980 155  15  55
 -0.0214 -0.0009  0.2041 155  15  55
 -0.6811 -0.0605  0.0572 155  15  55
 -0.1830  0.0247  0.1266 155  15  55
 -0.6226 -0.0619  0.0952 155  15  55
 -0.2651  0.0182  0.1676 155  15  55
 -0.5979 -0.0630  0.1375 155  15  55
 -0.3050  0.0142  0.2138 155  15  55
 -0.5927 -0.0616  0.1790 155  15  55
 -0.3239  0.0092  0.2618 155  15  55
 -0.6036 -0.0592  0.2181 155  15  55
 -0.3258  0.0051  0.3130 155  15  55
 -0.6318 -0.0574  0.2524 155  15  55
 -0.3068  0.0039  0.3687 155  15  55
 -0.6818 -0.0561  0.2747 155  15  55
 -0.2528  0.0070  0.4243 155  15  55
 -0.7559 -0.0507  0.2630 155  15  55
 -0.1397  0.0103  0.4470 155  15  55
 -0.8182 -0.0307  0.1737 155  15  55
 -0.0015 -0.0091  0.3329 155  15  55
 -0.5355 -0.0935  0.0546 155  15  55
 -0.3649  0.0419  0.1078 155  15  55
 -0.5200 -0.0851  0.1276 155  15  55
 -0.3923  0.0262  0.1829 155  15  55
 -0.5200 -0.0732  0.1923 155  15  55
 -0.4106  0.0088  0.2504 155  15  55
 -0.5342 -0.0617  0.2541 155  15  55
 -0.4214 -0.0060  0.3217 155  15  55
 -0.5660 -0.0550  0.3196 155  15  55
 -0.4229 -0.0145  0.4119 155  15  55
 -0.6306 -0.0565  0.3971 155  15  55
 -0.4007 -0.0139  0.5513 155  15  55
 -0.7828 -0.0671  0.4905 155  15  55
 -0.2688  0.0069  0.8192 155  15  55
 -1.2380 -0.0262  0.4889 155  15  55
  0.6531 -0.0023  1.2593 155  15  55
  0.0000  0.0000  0.0000 155  15  55
  0.1585 -0.0382 -0.4332  40   9 110
  0.0352  0.1077 -0.3954  40   9 110
  0.2944 -0.0506 -0.3438  40   9 110
  0.1513  0.0440 -0.4596  40   9 110
  0.0213 -0.0656 -0.3990  40   9 110
  0.3036  0.1252 -0.3092  40   9 110
  0.1873  0.0429 -0.4573  40   9 110
  0.0237 -0.0407 -0.4299  40   9 110
  0.2688  0.1931 -0.2946  40   9 110
  0.1859  0.0559 -0.4492  40   9 110
  0.0417 -0.0562 -0.4286  40   9 110
  0.2303  0.2055 -0.3142  40   9 110
  0.1783  0.0309 -0.4481  40   9 110
  0.0204 -0.0223 -0.4163  40   9 110
  0.1939  0.2061 -0.2793  40   9 110
  0.1785  0.0364 -0.4123  40   9 110
  0.0528 -0.0192 -0.4044  40   9 110
  0.0557  0.1373 -0.2996  40   9 110
  0.2273 -0.0129 -0.3430  40   9 110
  0.1133  0.0418 -0.4103  40   9 110
  0.0617 -0.0655 -0.3533  40   9 110
  0.1858  0.1508 -0.3178  40   9 110
  0.1697 -0.0085 -0.4062  40   9 110
  0.0431  0.0479 -0.3922  40   9 110
  0.1942 -0.1145 -0.3047  40   9 110
  0.1583  0.0711 -0.3916  40   9 110
  0.0968 -0.0578 -0.3901  40   9 110
  0.1125  0.1571 -0.3421  40   9 110
  0.2043 -0.0411 -0.3864  40   9 110
  0.0810  0.0753 -0.4153  40   9 110
  0.1670 -0.1255 -0.3460  40   9 110
  0.1574  0.1074 -0.3987  40   9 110
  0.1339 -0.0799 -0.4062  40   9 110
  0.1118  0.1581 -0.3809  40   9 110
  0.2145 -0.0671 -0.4017  40   9 110
  0.0875  0.0975 -0.4347  40   9 110
  0.1970 -0.1365 -0.3681  40   9 110
  0.1512  0.1074 -0.4307  40   9 110
  0.1289 -0.1083 -0.4139  40   9 110
  0.1540  0.1752 -0.3935  40   9 110
  0.1915 -0.0653 -0.4378  40   9 110
  0.0593  0.1264 -0.4314  40   9 110
  0.2851 -0.0938 -0.3747  40   9 110
  0.1382  0.0642 -0.4791  40   9 110
  0.0456 -0.1233 -0.4002  40   9 110
  0.2871  0.1272 -0.3594  40   9 110
  0.1581  0.0117 -0.4799  40   9 110
 -0.0243  0.0041 -0.4064  40   9 110
  0.0233  0.0884 -0.2742  40   9 110
  0.2368  0.0014 -0.3043  40   9 110
  0.1421  0.0339 -0.3983  40   9 110
  0.0561 -0.0276 -0.3706  40   9 110
  0.0973  0.1401 -0.3005  40   9 110
  0.2000 -0.0230 -0.3567  40   9 110
  0.0942  0.0540 -0.3978  40   9 110
  0.1047 -0.0921 -0.3406  40   9 110
  0.1663  0.1301 -0.3492  40   9 110
  0.1600 -0.0407 -0.4016  40   9 110
  0.0609  0.0984 -0.3868  40   9 110
  0.2395 -0.0876 -0.3437  40   9 110
  0.1380  0.0686 -0.4295  40   9 110
  0.0816 -0.0938 -0.3866  40   9 110
  0.1971  0.1670 -0.3503  40   9 110
  0.1695 -0.0209 -0.4352  40   9 110
  0.0232  0.0732 -0.4028  40   9 110
  0.3065 -0.0557 -0.3161  40   9 110
  0.1759  0.0353 -0.4511  40   9 110
  0.0206 -0.0318 -0.4161  40   9 110
  0.2486  0.1911 -0.2857  40   9 110
  0.1829  0.0504 -0.4334  40   9 110
  0.0483 -0.0435 -0.4186  40   9 110
  0.1608  0.2044 -0.3086  40   9 110
  0.1851  0.0075 -0.4147  40   9 110
  0.0414  0.0232 -0.4079  40   9 110
  0.0926 -0.1054 -0.2929  40   9 110
  0.1872  0.0999 -0.3364  40   9 110
  0.1407 -0.0223 -0.3969  40   9 110
  0.0481  0.0767 -0.3673  40   9 110
  0.2338 -0.0797 -0.3207  40   9 110
  0.1455  0.0599 -0.4126  40   9 110
  0.0753 -0.0681 -0.3840  40   9 110
  0.1649  0.1708 -0.3321  40   9 110
  0.1805 -0.0196 -0.4119  40   9 110
  0.0451  0.0636 -0.4038  40   9 110
  0.2306 -0.1138 -0.3172  40   9 110
  0.1577  0.0617 -0.4173  40   9 110
  0.0718 -0.0644 -0.3955  40   9 110
  0.1627  0.1806 -0.3305  40   9 110
  0.1838 -0.0155 -0.4148  40   9 110
  0.0426  0.0575 -0.4073  40   9 110
  0.2256 -0.1194 -0.3124  40   9 110
  0.1604  0.0612 -0.4137  40   9 110
  0.0730 -0.0600 -0.3962  40   9 110
  0.1501  0.1796 -0.3291  40   9 110
  0.1881 -0.0183 -0.4082  40   9 110
  0.0502  0.0596 -0.4085  40   9 110
  0.2060 -0.1242 -0.3178  40   9 110
  0.1585  0.0725 -0.4071  40   9 110
  0.0902 -0.0681 -0.3961  40   9 110
  0.1392  0.1729 -0.3437  40   9 110
  0.1934 -0.0329 -0.4067  40   9 110
  0.0588  0.0764 -0.4138  40   9 110
  0.2199 -0.1222 -0.3339  40   9 110
  0.1532  0.0753 -0.4222  40   9 110
  0.0875 -0.0837 -0.3983  40   9 110
  0.1723  0.1782 -0.3507  40   9 110
  0.1807 -0.0272 -0.4280  40   9 110
  0.0355  0.0784 -0.4106  40   9 110
  0.2851 -0.0867 -0.3248  40   9 110
  0.1647  0.0436 -0.4478  40   9 110
  0.0297 -0.0506 -0.4068  40   9 110
  0.2577  0.1758 -0.3019  40   9 110
  0.1809  0.0401 -0.4425  40   9 110
  0.0323 -0.0339 -0.4182  40   9 110
  0.1873  0.2068 -0.2933  40   9 110
  0.1795  0.0262 -0.4178  40   9 110
  0.0428 -0.0061 -0.4057  40   9 110
  0.0224  0.0799 -0.2893  40   9 110
  0.2442 -0.0056 -0.3022  40   9 110
  0.1470  0.0358 -0.4018  40   9 110
  0.0555 -0.0293 -0.3758  40   9 110
  0.1013  0.1477 -0.3014  40   9 110
  0.1998 -0.0205 -0.3621  40   9 110
  0.0897  0.0527 -0.3997  40   9 110
  0.1062 -0.0958 -0.3374  40   9 110
  0.1690  0.1272 -0.3507  40   9 110
  0.1570 -0.0409 -0.4026  40   9 110
  0.0601  0.1005 -0.3848  40   9 110
  0.2422 -0.0840 -0.3443  40   9 110
  0.1372  0.0671 -0.4307  40   9 110
  0.0790 -0.0937 -0.3857  40   9 110
  0.2012  0.1662 -0.3487  40   9 110
  0.1685 -0.0182 -0.4362  40   9 110
  0.0209  0.0689 -0.4021  40   9 110
  0.3088 -0.0525 -0.3121  40   9 110
  0.1793  0.0341 -0.4497  40   9 110
  0.0215 -0.0276 -0.4183  40   9 110
  0.2211  0.2028 -0.2835  40   9 110
  0.1795  0.0440 -0.4243  40   9 110
  0.0492 -0.0331 -0.4110  40   9 110
  0.1162  0.1875 -0.3030  40   9 110
  0.1978 -0.0043 -0.3878  40   9 110
  0.0675  0.0392 -0.4077  40   9 110
  0.0992 -0.1047 -0.3178  40   9 110
  0.1829  0.1144 -0.3459  40   9 110
  0.1467 -0.0314 -0.4034  40   9 110
  0.0506  0.0917 -0.3752  40   9 110
  0.2478 -0.0755 -0.3328  40   9 110
  0.1424  0.0587 -0.4266  40   9 110
  0.0663 -0.0771 -0.3856  40   9 110
  0.1994  0.1711 -0.3326  40   9 110
  0.1723 -0.0068 -0.4290  40   9 110
  0.0248  0.0465 -0.4021  40   9 110
  0.2670 -0.0978 -0.2966  40   9 110
  0.1732  0.0389 -0.4229  40   9 110
  0.0455 -0.0287 -0.4043  40   9 110
  0.1093  0.1792 -0.2977  40   9 110
  0.1990 -0.0053 -0.3791  40   9 110
  0.0747  0.0399 -0.4052  40   9 110
  0.0912 -0.0961 -0.3228  40   9 110
  0.1831  0.1208 -0.3397  40   9 110
  0.1522 -0.0275 -0.4033  40   9 110
  0.0487  0.0829 -0.3789  40   9 110
  0.2440 -0.0830 -0.3271  40   9 110
  0.1465  0.0591 -0.4228  40   9 110
  0.0679 -0.0723 -0.3877  40   9 110
  0.1876  0.1746 -0.3311  40   9 110
  0.1755 -0.0095 -0.4239  40   9 110
  0.0307  0.0504 -0.4032  40   9 110
  0.2516 -0.1070 -0.3018  40   9 110
  0.1673  0.0461 -0.4192  40   9 110
  0.0536 -0.0402 -0.3997  40   9 110
  0.1354  0.1834 -0.3077  40   9 110
  0.1912 -0.0065 -0.3945  40   9 110
  0.0599  0.0424 -0.4052  40   9 110
  0.1259 -0.1154 -0.3136  40   9 110
  0.1726  0.1033 -0.3613  40   9 110
  0.1360 -0.0451 -0.3996  40   9 110
  0.0670  0.1174 -0.3687  40   9 110
  0.2384 -0.0670 -0.3538  40   9 110
  0.1241  0.0676 -0.4295  40   9 110
  0.0894 -0.1038 -0.3756  40   9 110
  0.1968  0.1553 -0.3571  40   9 110
  0.1636 -0.0286 -0.4332  40   9 110
  0.0281  0.0887 -0.3981  40   9 110
  0.3012 -0.0519 -0.3282  40   9 110
  0.1651  0.0391 -0.4548  40   9 110
  0.0195 -0.0455 -0.4086  40   9 110
  0.2921  0.1534 -0.2947  40   9 110
  0.1911  0.0524 -0.4486  40   9 110
  0.0394 -0.0483 -0.4320  40   9 110
  0.2157  0.2133 -0.3080  40   9 110
  0.1786  0.0315 -0.4411  40   9 110
  0.0267 -0.0209 -0.4142  40   9 110
  0.1376  0.1997 -0.2823  40   9 110
  0.1861  0.0148 -0.3911  40   9 110
  0.0620  0.0156 -0.4002  40   9 110
  0.0412 -0.0396 -0.3054  40   9 110
  0.1751  0.1242 -0.2891  40   9 110
  0.1663 -0.0011 -0.3783  40   9 110
  0.0632  0.0358 -0.3800  40   9 110
  0.1071 -0.0850 -0.3094  40   9 110
  0.1611  0.1093 -0.3388  40   9 110
  0.1502 -0.0371 -0.3861  40   9 110
  0.0679  0.0926 -0.3737  40   9 110
  0.2167 -0.0863 -0.3400  40   9 110
  0.1342  0.0764 -0.4128  40   9 110
  0.1038 -0.0917 -0.3817  40   9 110
  0.1630  0.1598 -0.3599  40   9 110
  0.1771 -0.0431 -0.4185  40   9 110
  0.0526  0.0995 -0.4068  40   9 110
  0.2647 -0.0919 -0.3457  40   9 110
  0.1465  0.0597 -0.4480  40   9 110
  0.0531 -0.0885 -0.3959  40   9 110
  0.2474  0.1632 -0.3359  40   9 110
  0.1688  0.0113 -0.4533  40   9 110
  0.0034  0.0107 -0.4076  40   9 110
  0.3147 -0.0608 -0.2633  40   9 110
  0.2096  0.0219 -0.4230  40   9 110
  0.0471  0.0065 -0.4325  40   9 110
  0.0009 -0.0161 -0.2953  40   9 110
  0.2651  0.0438 -0.2637  40   9 110
  0.1811  0.0352 -0.3959  40   9 110
  0.0649 -0.0116 -0.4003  40   9 110
  0.0324  0.0882 -0.3070  40   9 110
  0.2438 -0.0209 -0.3119  40   9 110
  0.1418  0.0407 -0.4068  40   9 110
  0.0568 -0.0419 -0.3742  40   9 110
  0.1388  0.1634 -0.3070  40   9 110
  0.1864 -0.0133 -0.3858  40   9 110
  0.0659  0.0505 -0.3984  40   9 110
  0.1393 -0.1123 -0.3204  40   9 110
  0.1637  0.1033 -0.3688  40   9 110
  0.1362 -0.0547 -0.3970  40   9 110
  0.0803  0.1284 -0.3707  40   9 110
  0.2287 -0.0687 -0.3665  40   9 110
  0.1141  0.0769 -0.4292  40   9 110
  0.1166 -0.1188 -0.3723  40   9 110
  0.1808  0.1452 -0.3782  40   9 110
  0.1594 -0.0528 -0.4295  40   9 110
  0.0532  0.1277 -0.3984  40   9 110
  0.2769 -0.0649 -0.3644  40   9 110
  0.1321  0.0574 -0.4615  40   9 110
  0.0475 -0.1061 -0.3871  40   9 110
  0.2695  0.1360 -0.3442  40   9 110
  0.1624  0.0123 -0.4620  40   9 110
 -0.0061  0.0061 -0.4047  40   9 110
  0.1774  0.1980 -0.2612  40   9 110
  0.1784  0.0368 -0.3931  40   9 110
  0.0672 -0.0136 -0.3974  40   9 110
  0.0376  0.0941 -0.3087  40   9 110
  0.2403 -0.0243 -0.3167  40   9 110
  0.1375  0.0427 -0.4071  40   9 110
  0.0591 -0.0479 -0.3714  40   9 110
  0.1511  0.1636 -0.3107  40   9 110
  0.1824 -0.0125 -0.3926  40   9 110
  0.0590  0.0508 -0.3977  40   9 110
  0.1558 -0.1160 -0.3161  40   9 110
  0.1608  0.0939 -0.3770  40   9 110
  0.1258 -0.0592 -0.3946  40   9 110
  0.0918  0.1394 -0.3640  40   9 110
  0.2200 -0.0617 -0.3757  40   9 110
  0.1027  0.0806 -0.4259  40   9 110
  0.1395 -0.1253 -0.3654  40   9 110
  0.1681  0.1321 -0.3912  40   9 110
  0.1532 -0.0700 -0.4215  40   9 110
  0.0809  0.1471 -0.3962  40   9 110
  0.2476 -0.0744 -0.3872  40   9 110
  0.1093  0.0801 -0.4544  40   9 110
  0.1220 -0.1451 -0.3774  40   9 110
  0.1969  0.1392 -0.3973  40   9 110
  0.1454 -0.0597 -0.4458  40   9 110
  0.0548  0.1565 -0.3943  40   9 110
  0.2787 -0.0455 -0.3850  40   9 110
  0.1137  0.0561 -0.4716  40   9 110
  0.0531 -0.1294 -0.3738  40   9 110
  0.2642  0.1187 -0.3587  40   9 110
  0.1489  0.0008 -0.4620  40   9 110
 -0.0126  0.0322 -0.3918  40   9 110
  0.2903  0.1379 -0.2813  40   9 110
  0.1939  0.0531 -0.4350  40   9 110
  0.0506 -0.0414 -0.4291  40   9 110
  0.1431  0.2106 -0.3103  40   9 110
  0.1902  0.0051 -0.4122  40   9 110
  0.0451  0.0272 -0.4111  40   9 110
  0.1009 -0.1126 -0.2975  40   9 110
  0.1858  0.0996 -0.3441  40   9 110
  0.1377 -0.0273 -0.3993  40   9 110
  0.0495  0.0876 -0.3663  40   9 110
  0.2427 -0.0719 -0.3279  40   9 110
  0.1422  0.0580 -0.4202  40   9 110
  0.0693 -0.0726 -0.3832  40   9 110
  0.1850  0.1710 -0.3311  40   9 110
  0.1750 -0.0117 -0.4210  40   9 110
  0.0334  0.0539 -0.4019  40   9 110
  0.2485 -0.1068 -0.3051  40   9 110
  0.1649  0.0488 -0.4193  40   9 110
  0.0560 -0.0452 -0.3984  40   9 110
  0.1464  0.1844 -0.3115  40   9 110
  0.1881 -0.0062 -0.4009  40   9 110
  0.0536  0.0426 -0.4051  40   9 110
  0.1426 -0.1209 -0.3097  40   9 110
  0.1687  0.0945 -0.3700  40   9 110
  0.1266 -0.0505 -0.3972  40   9 110
  0.0776  0.1301 -0.3625  40   9 110
  0.2302 -0.0611 -0.3640  40   9 110
  0.1128  0.0719 -0.4276  40   9 110
  0.1090 -0.1152 -0.3686  40   9 110
  0.1847  0.1449 -0.3711  40   9 110
  0.1590 -0.0459 -0.4284  40   9 110
  0.0465  0.1176 -0.3960  40   9 110
  0.2813 -0.0620 -0.3543  40   9 110
  0.1400  0.0522 -0.4583  40   9 110
  0.0368 -0.0886 -0.3912  40   9 110
  0.2802  0.1362 -0.3292  40   9 110
  0.1716  0.0254 -0.4593  40   9 110
  0.0056 -0.0181 -0.4136  40   9 110
  0.3200  0.1300 -0.2698  40   9 110
  0.2119  0.0667 -0.4406  40   9 110
  0.0600 -0.0486 -0.4500  40   9 110
  0.1378  0.2266 -0.3237  40   9 110
  0.1945  0.0037 -0.4259  40   9 110
  0.0352  0.0288 -0.4199  40   9 110
  0.1441 -0.1364 -0.2924  40   9 110
  0.1761  0.0804 -0.3702  40   9 110
  0.1134 -0.0409 -0.3975  40   9 110
  0.0682  0.1259 -0.3500  40   9 110
  0.2344 -0.0511 -0.3544  40   9 110
  0.1167  0.0627 -0.4242  40   9 110
  0.0889 -0.1010 -0.3666  40   9 110
  0.1935  0.1497 -0.3528  40   9 110
  0.1624 -0.0283 -0.4268  40   9 110
  0.0328  0.0867 -0.3949  40   9 110
  0.2892 -0.0631 -0.3274  40   9 110
  0.1608  0.0425 -0.4480  40   9 110
  0.0282 -0.0511 -0.4032  40   9 110
  0.2635  0.1690 -0.3013  40   9 110
  0.1817  0.0409 -0.4428  40   9 110
  0.0328 -0.0349 -0.4191  40   9 110
  0.1891  0.2074 -0.2943  40   9 110
  0.1794  0.0265 -0.4194  40   9 110
  0.0417 -0.0070 -0.4063  40   9 110
  0.0243  0.0876 -0.2886  40   9 110
  0.2429 -0.0043 -0.3066  40   9 110
  0.1437  0.0356 -0.4032  40   9 110
  0.0542 -0.0313 -0.3735  40   9 110
  0.1108  0.1518 -0.3010  40   9 110
  0.1955 -0.0183 -0.3673  40   9 110
  0.0840  0.0522 -0.3984  40   9 110
  0.1128 -0.0993 -0.3330  40   9 110
  0.1674  0.1219 -0.3543  40   9 110
  0.1533 -0.0443 -0.4009  40   9 110
  0.0642  0.1065 -0.3821  40   9 110
  0.2396 -0.0811 -0.3492  40   9 110
  0.1326  0.0696 -0.4308  40   9 110
  0.0859 -0.1000 -0.3832  40   9 110
  0.1981  0.1623 -0.3552  40   9 110
  0.1667 -0.0251 -0.4361  40   9 110
  0.0240  0.0819 -0.4012  40   9 110
  0.3081 -0.0486 -0.3227  40   9 110
  0.1721  0.0364 -0.4554  40   9 110
  0.0173 -0.0372 -0.4145  40   9 110
  0.2881  0.1645 -0.2882  40   9 110
  0.1924  0.0576 -0.4454  40   9 110
  0.0466 -0.0525 -0.4331  40   9 110
  0.2004  0.2156 -0.3150  40   9 110
  0.1796  0.0218 -0.4397  40   9 110
  0.0227 -0.0041 -0.4132  40   9 110
  0.0192  0.0941 -0.2733  40   9 110
  0.2388  0.0086 -0.3067  40   9 110
  0.1418  0.0317 -0.4008  40   9 110
  0.0524 -0.0250 -0.3706  40   9 110
  0.0944  0.1385 -0.2972  40   9 110
  0.2007 -0.0217 -0.3538  40   9 110
  0.0961  0.0524 -0.3970  40   9 110
  0.0997 -0.0881 -0.3411  40   9 110
  0.1665  0.1322 -0.3450  40   9 110
  0.1620 -0.0376 -0.4009  40   9 110
  0.0592  0.0929 -0.3875  40   9 110
  0.2370 -0.0907 -0.3395  40   9 110
  0.1408  0.0683 -0.4265  40   9 110
  0.0813 -0.0894 -0.3876  40   9 110
  0.1915  0.1694 -0.3478  40   9 110
  0.1719 -0.0209 -0.4320  40   9 110
  0.0265  0.0718 -0.4038  40   9 110
  0.2981 -0.0678 -0.3160  40   9 110
  0.1729  0.0371 -0.4474  40   9 110
  0.0246 -0.0350 -0.4124  40   9 110
  0.2356  0.1926 -0.2894  40   9 110
  0.1804  0.0430 -0.4304  40   9 110
  0.0440 -0.0337 -0.4138  40   9 110
  0.1346  0.1966 -0.3001  40   9 110
  0.1907  0.0033 -0.3972  40   9 110
  0.0573  0.0301 -0.4057  40   9 110
  0.0876 -0.0977 -0.3067  40   9 110
  0.1870  0.1107 -0.3347  40   9 110
  0.1475 -0.0225 -0.3996  40   9 110
  0.0474  0.0753 -0.3734  40   9 110
  0.2354 -0.0843 -0.3206  40   9 110
  0.1475  0.0599 -0.4145  40   9 110
  0.0736 -0.0678 -0.3862  40   9 110
  0.1672  0.1730 -0.3315  40   9 110
  0.1804 -0.0176 -0.4137  40   9 110
  0.0430  0.0611 -0.4042  40   9 110
  0.2319 -0.1142 -0.3146  40   9 110
  0.1591  0.0598 -0.4168  40   9 110
  0.0696 -0.0611 -0.3958  40   9 110
  0.1594  0.1812 -0.3275  40   9 110
  0.1849 -0.0143 -0.4122  40   9 110
  0.0447  0.0552 -0.4071  40   9 110
  0.2120 -0.1228 -0.3120  40   9 110
  0.1601  0.0667 -0.4071  40   9 110
  0.0831 -0.0620 -0.3954  40   9 110
  0.1371  0.1738 -0.3362  40   9 110
  0.1936 -0.0279 -0.4030  40   9 110
  0.0595  0.0694 -0.4118  40   9 110
  0.2033 -0.1250 -0.3295  40   9 110
  0.1554  0.0804 -0.4115  40   9 110
  0.0985 -0.0789 -0.3981  40   9 110
  0.1475  0.1735 -0.3547  40   9 110
  0.1905 -0.0387 -0.4157  40   9 110
  0.0543  0.0870 -0.4158  40   9 110
  0.2499 -0.1116 -0.3394  40   9 110
  0.1517  0.0643 -0.4400  40   9 110
  0.0629 -0.0853 -0.3992  40   9 110
  0.2223  0.1759 -0.3388  40   9 110
  0.1707  0.0008 -0.4463  40   9 110
  0.0086  0.0327 -0.4066  40   9 110
  0.3215 -0.0466 -0.2817  40   9 110
  0.2037  0.0269 -0.4372  40   9 110
  0.0349 -0.0043 -0.4339  40   9 110
 -0.0027  0.0800 -0.2847  40   9 110
  0.2531  0.0394 -0.2997  40   9 110
  0.1556  0.0270 -0.4077  40   9 110
  0.0456 -0.0132 -0.3829  40   9 110
  0.0567  0.1117 -0.2905  40   9 110
  0.2192 -0.0212 -0.3270  40   9 110
  0.1213  0.0455 -0.3982  40   9 110
  0.0719 -0.0589 -0.3573  40   9 110
  0.1553  0.1511 -0.3206  40   9 110
  0.1771 -0.0215 -0.3931  40   9 110
  0.0595  0.0637 -0.3944  40   9 110
  0.1887 -0.1133 -0.3229  40   9 110
  0.1524  0.0836 -0.3964  40   9 110
  0.1105 -0.0727 -0.3920  40   9 110
  0.1247  0.1594 -0.3579  40   9 110
  0.1996 -0.0502 -0.3990  40   9 110
  0.0757  0.0897 -0.4184  40   9 110
  0.2057 -0.1247 -0.3524  40   9 110
  0.1480  0.0931 -0.4237  40   9 110
  0.1142 -0.1000 -0.4023  40   9 110
  0.1603  0.1720 -0.3763  40   9 110
  0.1847 -0.0518 -0.4311  40   9 110
  0.0513  0.1118 -0.4196  40   9 110
  0.2836 -0.0877 -0.3574  40   9 110
  0.1459  0.0567 -0.4664  40   9 110
  0.0363 -0.0960 -0.4002  40   9 110
  0.2908  0.1333 -0.3364  40   9 110
  0.1716  0.0261 -0.4694  40   9 110
 -0.0029 -0.0223 -0.4171  40   9 110
  0.3462 -0.0105 -0.2730  40   9 110
  0.2240  0.0316 -0.4433  40   9 110
  0.0390 -0.0058 -0.4548  40   9 110
 -0.0177  0.0943 -0.2900  40   9 110
  0.2485  0.0615 -0.3098  40   9 110
  0.1517  0.0201 -0.4128  40   9 110
  0.0367 -0.0040 -0.3805  40   9 110
  0.0386  0.0651 -0.2823  40   9 110
  0.2142 -0.0305 -0.2969  40   9 110
  0.1389  0.0459 -0.3827  40   9 110
  0.0782 -0.0401 -0.3662  40   9 110
  0.1050  0.1370 -0.3185  40   9 110
  0.1973 -0.0349 -0.3641  40   9 110
  0.0918  0.0660 -0.4001  40   9 110
  0.1318 -0.1053 -0.3447  40   9 110
  0.1587  0.1224 -0.3705  40   9 110
  0.1540 -0.0596 -0.4027  40   9 110
  0.0789  0.1251 -0.3872  40   9 110
  0.2339 -0.0812 -0.3687  40   9 110
  0.1200  0.0806 -0.4367  40   9 110
  0.1143 -0.1229 -0.3805  40   9 110
  0.1870  0.1506 -0.3819  40   9 110
  0.1598 -0.0518 -0.4376  40   9 110
  0.0465  0.1301 -0.4012  40   9 110
  0.2885 -0.0555 -0.3651  40   9 110
  0.1350  0.0518 -0.4687  40   9 110
  0.0308 -0.0986 -0.3897  40   9 110
  0.2947  0.1148 -0.3347  40   9 110
  0.1698  0.0262 -0.4659  40   9 110
 -0.0001 -0.0222 -0.4143  40   9 110
  0.3498  0.0321 -0.2726  40   9 110
  0.2269  0.0433 -0.4457  40   9 110
  0.0436 -0.0191 -0.4601  40   9 110
  0.0370  0.1885 -0.2980  40   9 110
  0.2267  0.0147 -0.3687  40   9 110
  0.0950  0.0234 -0.4217  40   9 110
  0.0297 -0.0438 -0.3367  40   9 110
  0.2197  0.1370 -0.2898  40   9 110
  0.1712  0.0191 -0.4043  40   9 110
  0.0482  0.0048 -0.3934  40   9 110
  0.0292  0.0039 -0.2923  40   9 110
  0.0971  0.0119 -0.2714  40   9 110
  0.1164  0.0188 -0.3073  40   9 110
  0.1022  0.0089 -0.3267  40   9 110
  0.0839  0.0176 -0.3212  40   9 110
  0.0909 -0.0042 -0.3093  40   9 110
  0.0917  0.0424 -0.3105  40   9 110
  0.1229 -0.0314 -0.3169  40   9 110
  0.1046  0.0748 -0.3346  40   9 110
  0.1478 -0.0559 -0.3403  40   9 110
  0.1106  0.0945 -0.3617  40   9 110
  0.1615 -0.0740 -0.3594  40   9 110
  0.1149  0.1083 -0.3819  40   9 110
  0.1714 -0.0864 -0.3748  40   9 110
  0.1170  0.1176 -0.3981  40   9 110
  0.1793 -0.0966 -0.3862  40   9 110
  0.1194  0.1243 -0.4115  40   9 110
  0.1842 -0.1052 -0.3960  40   9 110
  0.1218  0.1307 -0.4222  40   9 110
  0.1889 -0.1117 -0.4050  40   9 110
  0.1228  0.1359 -0.4319  40   9 110
  0.1941 -0.1179 -0.4124  40   9 110
  0.1240  0.1395 -0.4415  40   9 110
  0.1973 -0.1247 -0.4190  40   9 110
  0.1266  0.1437 -0.4498  40   9 110
  0.1994 -0.1300 -0.4265  40   9 110
  0.1281  0.1489 -0.4572  40   9 110
  0.2041 -0.1342 -0.4338  40   9 110
  0.1277  0.1523 -0.4661  40   9 110
  0.2096 -0.1407 -0.4395  40   9 110
  0.1296  0.1541 -0.4761  40   9 110
  0.2105 -0.1490 -0.4459  40   9 110
  0.1346  0.1592 -0.4842  40   9 110
  0.2103 -0.1540 -0.4561  40   9 110
  0.1364  0.1678 -0.4920  40   9 110
  0.2186 -0.1568 -0.4670  40   9 110
  0.1319  0.1723 -0.5054  40   9 110
  0.2330 -0.1668 -0.4736  40   9 110
  0.1328  0.1689 -0.5256  40   9 110
  0.2329 -0.1893 -0.4800  40   9 110
  0.1499  0.1717 -0.5423  40   9 110
  0.2113 -0.2056 -0.5014  40   9 110
  0.1742  0.1988 -0.5499  40   9 110
  0.2092 -0.1962 -0.5448  40   9 110
  0.1649  0.2485 -0.5667  40   9 110
  0.2689 -0.1796 -0.5922  40   9 110
  0.0843  0.2616 -0.6372  40   9 110
  0.4468 -0.1586 -0.6045  40   9 110
  0.0695  0.1230 -0.8274  40   9 110
  0.5214 -0.5352 -0.4880  40   9 110
  0.1703 -0.2857 -0.9834  40   9 110
  0.5860  0.7876 -0.9083  40   9 110
  0.0000  0.0000  0.0000  40   9 110
 -0.4821  0.0058 -0.3181 122   6  81
 -0.3894  0.0033 -0.3569 122   6  81
 -0.4964  0.0060 -0.3281 122   6  81
 -0.3819  0.0031 -0.3758 122   6  81
 -0.5160  0.0063 -0.3372 122   6  81
 -0.3681  0.0027 -0.3981 122   6  81
 -0.5437  0.0068 -0.3432 122   6  81
 -0.3429  0.0020 -0.4233 122   6  81
 -0.5823  0.0071 -0.3404 122   6  81
 -0.2975  0.0009 -0.4465 122   6  81
 -0.6315  0.0071 -0.3158 122   6  81
 -0.2216 -0.0003 -0.4489 122   6  81
 -0.6731  0.0060 -0.2491 122   6  81
 -0.1296 -0.0005 -0.3854 122   6  81
 -0.6524  0.0054 -0.1500 122   6  81
 -0.1176 -0.0002 -0.2459 122   6  81
 -0.5673  0.0062 -0.1079 122   6  81
 -0.2105 -0.0004 -0.1725 122   6  81
 -0.5061  0.0065 -0.1228 122   6  81
 -0.2796  0.0003 -0.1744 122   6  81
 -0.4729  0.0063 -0.1476 122   6  81
 -0.3189  0.0010 -0.1897 122   6  81
 -0.4550  0.0060 -0.1711 122   6  81
 -0.3430  0.0017 -0.2058 122   6  81
 -0.4454  0.0057 -0.1913 122   6  81
 -0.3589  0.0023 -0.2205 122   6  81
 -0.4405  0.0054 -0.2084 122   6  81
 -0.3701  0.0027 -0.2337 122   6  81
 -0.4383  0.0052 -0.2231 122   6  81
 -0.3783  0.0030 -0.2457 122   6  81
 -0.4379  0.0051 -0.2360 122   6  81
 -0.3846  0.0033 -0.2568 122   6  81
 -0.4387  0.0050 -0.2476 122   6  81
 -0.3896  0.0034 -0.2674 122   6  81
 -0.4404  0.0050 -0.2584 122   6  81
 -0.3935  0.0035 -0.2777 122   6  81
 -0.4430  0.0050 -0.2687 122   6  81
 -0.3967  0.0036 -0.2881 122   6  81
 -0.4464  0.0051 -0.2787 122   6  81
 -0.3991  0.0037 -0.2989 122   6  81
 -0.4507  0.0051 -0.2887 122   6  81
 -0.4009  0.0037 -0.3104 122   6  81
 -0.4563  0.0052 -0.2989 122   6  81
 -0.4018  0.0037 -0.3229 122   6  81
 -0.4635  0.0054 -0.3096 122   6  81
 -0.4017  0.0037 -0.3372 122   6  81
 -0.4730  0.0056 -0.3210 122   6  81
 -0.4000  0.0036 -0.3538 122   6  81
 -0.4858  0.0058 -0.3331 122   6  81
 -0.3957  0.0034 -0.3738 122   6  81
 -0.5038  0.0061 -0.3459 122   6  81
 -0.3865  0.0032 -0.3987 122   6  81
 -0.5303  0.0066 -0.3583 122   6  81
 -0.3679  0.0026 -0.4301 122   6  81
 -0.5703  0.0071 -0.3665 122   6  81
 -0.3298  0.0016 -0.4682 122   6  81
 -0.6311  0.0075 -0.3589 122   6  81
 -0.2512 -0.0000 -0.5031 122   6  81
 -0.7107  0.0064 -0.3029 122   6  81
 -0.1073 -0.0010 -0.4806 122   6  81
 -0.7401  0.0022 -0.1532 122   6  81
  0.0036  0.0033 -0.2769 122   6  81
 -0.5264 -0.0700 -0.0528 122   6  81
 -0.2512  0.0794 -0.1062 122   6  81
 -0.4731 -0.0270 -0.1060 122   6  81
 -0.3087  0.0307 -0.1506 122   6  81
 -0.4485 -0.0081 -0.1436 122   6  81
 -0.3401  0.0129 -0.1789 122   6  81
 -0.4371  0.0001 -0.1719 122   6  81
 -0.3592  0.0064 -0.2003 122   6  81
 -0.4318  0.0033 -0.1940 122   6  81
 -0.3719  0.0042 -0.2177 122   6  81
 -0.4298  0.0044 -0.2120 122   6  81
 -0.3809  0.0036 -0.2323 122   6  81
 -0.4296  0.0047 -0.2271 122   6  81
 -0.3878  0.0035 -0.2452 122   6  81
 -0.4305  0.0048 -0.2403 122   6  81
 -0.3931  0.0036 -0.2570 122   6  81
 -0.4322  0.0048 -0.2522 122   6  81
 -0.3975  0.0037 -0.2681 122   6  81
 -0.4345  0.0048 -0.2632 122   6  81
 -0.4011  0.0038 -0.2789 122   6  81
 -0.4375  0.0049 -0.2738 122   6  81
 -0.4042  0.0038 -0.2897 122   6  81
 -0.4412  0.0049 -0.2843 122   6  81
 -0.4069  0.0039 -0.3010 122   6  81
 -0.4457  0.0050 -0.2951 122   6  81
 -0.4091  0.0039 -0.3132 122   6  81
 -0.4514  0.0051 -0.3063 122   6  81
 -0.4107  0.0039 -0.3267 122   6  81
 -0.4587  0.0052 -0.3184 122   6  81
 -0.4117  0.0039 -0.3423 122   6  81
 -0.4683  0.0054 -0.3319 122   6  81
 -0.4115  0.0039 -0.3610 122   6  81
 -0.4816  0.0057 -0.3472 122   6  81
 -0.4093  0.0038 -0.3846 122   6  81
 -0.5011  0.0061 -0.3649 122   6  81
 -0.4028  0.0036 -0.4158 122   6  81
 -0.5314  0.0066 -0.3851 122   6  81
 -0.3866  0.0031 -0.4594 122   6  81
 -0.5822  0.0074 -0.4053 122   6  81
 -0.3460  0.0020 -0.5221 122   6  81
 -0.6735  0.0082 -0.4113 122   6  81
 -0.2362 -0.0005 -0.6042 122   6  81
 -0.8300  0.0052 -0.3356 122   6  81
  0.0555 -0.0008 -0.6071 122   6  81
 -0.8861  0.0163 -0.1175 122   6  81
  0.2504 -0.0220 -0.2584 122   6  81
 -0.5242  0.0071 -0.1800 122   6  81
 -0.2783 -0.0001 -0.2388 122   6  81
 -0.5003  0.0064 -0.1830 122   6  81
 -0.3039  0.0008 -0.2332 122   6  81
 -0.4827  0.0062 -0.1919 122   6  81
 -0.3245  0.0014 -0.2354 122   6  81
 -0.4708  0.0060 -0.2029 122   6  81
 -0.3402  0.0018 -0.2411 122   6  81
 -0.4630  0.0058 -0.2142 122   6  81
 -0.3522  0.0022 -0.2484 122   6  81
 -0.4584  0.0056 -0.2251 122   6  81
 -0.3612  0.0025 -0.2565 122   6  81
 -0.4560  0.0055 -0.2354 122   6  81
 -0.3682  0.0027 -0.2648 122   6  81
 -0.4552  0.0055 -0.2451 122   6  81
 -0.3735  0.0029 -0.2732 122   6  81
 -0.4558  0.0054 -0.2542 122   6  81
 -0.3776  0.0030 -0.2819 122   6  81
 -0.4576  0.0054 -0.2630 122   6  81
 -0.3805  0.0031 -0.2908 122   6  81
 -0.4605  0.0054 -0.2713 122   6  81
 -0.3823  0.0032 -0.3000 122   6  81
 -0.4645  0.0055 -0.2795 122   6  81
 -0.3830  0.0032 -0.3098 122   6  81
 -0.4700  0.0056 -0.2874 122   6  81
 -0.3824  0.0031 -0.3202 122   6  81
 -0.4770  0.0057 -0.2950 122   6  81
 -0.3802  0.0031 -0.3316 122   6  81
 -0.4860  0.0059 -0.3023 122   6  81
 -0.3758  0.0029 -0.3439 122   6  81
 -0.4977  0.0061 -0.3086 122   6  81
 -0.3682  0.0027 -0.3573 122   6  81
 -0.5128  0.0063 -0.3132 122   6  81
 -0.3559  0.0024 -0.3714 122   6  81
 -0.5320  0.0066 -0.3144 122   6  81
 -0.3366  0.0019 -0.3846 122   6  81
 -0.5553  0.0068 -0.3090 122   6  81
 -0.3078  0.0012 -0.3933 122   6  81
 -0.5807  0.0069 -0.2922 122   6  81
 -0.2689  0.0004 -0.3895 122   6  81
 -0.6000  0.0067 -0.2596 122   6  81
 -0.2280 -0.0001 -0.3616 122   6  81
 -0.5995  0.0064 -0.2150 122   6  81
 -0.2076 -0.0002 -0.3079 122   6  81
 -0.5724  0.0063 -0.1779 122   6  81
 -0.2247 -0.0001 -0.2538 122   6  81
 -0.5346  0.0064 -0.1642 122   6  81
 -0.2619  0.0002 -0.2257 122   6  81
 -0.5030  0.0064 -0.1683 122   6  81
 -0.2960  0.0007 -0.2194 122   6  81
 -0.4812  0.0062 -0.1800 122   6  81
 -0.3215  0.0013 -0.2233 122   6  81
 -0.4672  0.0060 -0.1937 122   6  81
 -0.3400  0.0018 -0.2311 122   6  81
 -0.4585  0.0058 -0.2072 122   6  81
 -0.3534  0.0022 -0.2402 122   6  81
 -0.4534  0.0056 -0.2199 122   6  81
 -0.3634  0.0026 -0.2495 122   6  81
 -0.4509  0.0054 -0.2314 122   6  81
 -0.3710  0.0028 -0.2588 122   6  81
 -0.4500  0.0054 -0.2421 122   6  81
 -0.3768  0.0030 -0.2680 122   6  81
 -0.4506  0.0053 -0.2521 122   6  81
 -0.3812  0.0031 -0.2773 122   6  81
 -0.4522  0.0053 -0.2615 122   6  81
 -0.3846  0.0032 -0.2867 122   6  81
 -0.4549  0.0053 -0.2706 122   6  81
 -0.3869  0.0033 -0.2963 122   6  81
 -0.4588  0.0054 -0.2794 122   6  81
 -0.3883  0.0033 -0.3065 122   6  81
 -0.4638  0.0054 -0.2881 122   6  81
 -0.3886  0.0033 -0.3174 122   6  81
 -0.4704  0.0056 -0.2968 122   6  81
 -0.3874  0.0033 -0.3293 122   6  81
 -0.4790  0.0057 -0.3053 122   6  81
 -0.3844  0.0032 -0.3426 122   6  81
 -0.4903  0.0059 -0.3135 122   6  81
 -0.3786  0.0030 -0.3575 122   6  81
 -0.5052  0.0062 -0.3208 122   6  81
 -0.3684  0.0027 -0.3743 122   6  81
 -0.5250  0.0065 -0.3259 122   6  81
 -0.3513  0.0022 -0.3923 122   6  81
 -0.5512  0.0068 -0.3257 122   6  81
 -0.3230  0.0015 -0.4092 122   6  81
 -0.5838  0.0070 -0.3144 122   6  81
 -0.2787  0.0006 -0.4173 122   6  81
 -0.6171  0.0068 -0.2827 122   6  81
 -0.2198 -0.0002 -0.3990 122   6  81
 -0.6316  0.0062 -0.2255 122   6  81
 -0.1727 -0.0004 -0.3350 122   6  81
 -0.6031  0.0061 -0.1658 122   6  81
 -0.1845 -0.0003 -0.2501 122   6  81
 -0.5492  0.0063 -0.1424 122   6  81
 -0.2394 -0.0001 -0.2065 122   6  81
 -0.5060  0.0064 -0.1490 122   6  81
 -0.2869  0.0005 -0.2009 122   6  81
 -0.4787  0.0063 -0.1653 122   6  81
 -0.3189  0.0011 -0.2084 122   6  81
 -0.4624  0.0060 -0.1830 122   6  81
 -0.3403  0.0017 -0.2194 122   6  81
 -0.4530  0.0057 -0.1994 122   6  81
 -0.3553  0.0022 -0.2308 122   6  81
 -0.4477  0.0055 -0.2141 122   6  81
 -0.3661  0.0026 -0.2418 122   6  81
 -0.4451  0.0053 -0.2271 122   6  81
 -0.3741  0.0029 -0.2523 122   6  81
 -0.4444  0.0052 -0.2389 122   6  81
 -0.3803  0.0031 -0.2624 122   6  81
 -0.4449  0.0052 -0.2497 122   6  81
 -0.3851  0.0033 -0.2723 122   6  81
 -0.4465  0.0052 -0.2598 122   6  81
 -0.3888  0.0034 -0.2822 122   6  81
 -0.4491  0.0052 -0.2695 122   6  81
 -0.3916  0.0034 -0.2922 122   6  81
 -0.4527  0.0052 -0.2790 122   6  81
 -0.3936  0.0035 -0.3027 122   6  81
 -0.4574  0.0053 -0.2884 122   6  81
 -0.3946  0.0035 -0.3139 122   6  81
 -0.4635  0.0054 -0.2979 122   6  81
 -0.3946  0.0035 -0.3263 122   6  81
 -0.4714  0.0056 -0.3076 122   6  81
 -0.3931  0.0034 -0.3401 122   6  81
 -0.4819  0.0057 -0.3175 122   6  81
 -0.3893  0.0033 -0.3561 122   6  81
 -0.4959  0.0060 -0.3273 122   6  81
 -0.3819  0.0031 -0.3748 122   6  81
 -0.5153  0.0063 -0.3364 122   6  81
 -0.3683  0.0027 -0.3968 122   6  81
 -0.5424  0.0067 -0.3424 122   6  81
 -0.3437  0.0020 -0.4215 122   6  81
 -0.5803  0.0071 -0.3398 122   6  81
 -0.2995  0.0010 -0.4445 122   6  81
 -0.6286  0.0071 -0.3163 122   6  81
 -0.2256 -0.0003 -0.4478 122   6  81
 -0.6703  0.0061 -0.2522 122   6  81
 -0.1350 -0.0005 -0.3882 122   6  81
 -0.6531  0.0053 -0.1549 122   6  81
 -0.1181 -0.0002 -0.2525 122   6  81
 -0.5705  0.0063 -0.1097 122   6  81
 -0.2073 -0.0005 -0.1753 122   6  81
 -0.5084  0.0065 -0.1228 122   6  81
 -0.2773  0.0002 -0.1750 122   6  81
 -0.4744  0.0063 -0.1471 122   6  81
 -0.3173  0.0010 -0.1897 122   6  81
 -0.4560  0.0060 -0.1705 122   6  81
 -0.3418  0.0017 -0.2056 122   6  81
 -0.4461  0.0057 -0.1907 122   6  81
 -0.3581  0.0023 -0.2202 122   6  81
 -0.4410  0.0054 -0.2078 122   6  81
 -0.3694  0.0027 -0.2334 122   6  81
 -0.4387  0.0052 -0.2225 122   6  81
 -0.3778  0.0030 -0.2453 122   6  81
 -0.4382  0.0051 -0.2355 122   6  81
 -0.3842  0.0032 -0.2565 122   6  81
 -0.4389  0.0050 -0.2471 122   6  81
 -0.3892  0.0034 -0.2670 122   6  81
 -0.4405  0.0050 -0.2579 122   6  81
 -0.3931  0.0035 -0.2774 122   6  81
 -0.4431  0.0050 -0.2682 122   6  81
 -0.3963  0.0036 -0.2878 122   6  81
 -0.4464  0.0051 -0.2782 122   6  81
 -0.3988  0.0037 -0.2985 122   6  81
 -0.4508  0.0051 -0.2882 122   6  81
 -0.4006  0.0037 -0.3099 122   6  81
 -0.4563  0.0052 -0.2984 122   6  81
 -0.4015  0.0037 -0.3224 122   6  81
 -0.4634  0.0054 -0.3090 122   6  81
 -0.4014  0.0037 -0.3365 122   6  81
 -0.4728  0.0055 -0.3203 122   6  81
 -0.3998  0.0036 -0.3530 122   6  81
 -0.4855  0.0058 -0.3323 122   6  81
 -0.3954  0.0034 -0.3728 122   6  81
 -0.5033  0.0061 -0.3449 122   6  81
 -0.3864  0.0032 -0.3973 122   6  81
 -0.5292  0.0066 -0.3571 122   6  81
 -0.3682  0.0026 -0.4281 122   6  81
 -0.5684  0.0071 -0.3653 122   6  81
 -0.3311  0.0017 -0.4655 122   6  81
 -0.6277  0.0075 -0.3583 122   6  81
 -0.2550  0.0001 -0.5000 122   6  81
 -0.7056  0.0065 -0.3051 122   6  81
 -0.1159 -0.0011 -0.4807 122   6  81
 -0.7383  0.0025 -0.1615 122   6  81
 -0.0018  0.0030 -0.2886 122   6  81
 -0.4804  0.0793 -0.0521 122   6  81
 -0.2987 -0.0689 -0.1008 122   6  81
 -0.4453  0.0432 -0.1119 122   6  81
 -0.3365 -0.0296 -0.1502 122   6  81
 -0.4305  0.0224 -0.1516 122   6  81
 -0.3587 -0.0105 -0.1808 122   6  81
 -0.4248  0.0120 -0.1799 122   6  81
 -0.3727 -0.0020 -0.2030 122   6  81
 -0.4230  0.0075 -0.2014 122   6  81
 -0.3824  0.0015 -0.2205 122   6  81
 -0.4231  0.0056 -0.2187 122   6  81
 -0.3895  0.0029 -0.2352 122   6  81
 -0.4243  0.0050 -0.2333 122   6  81
 -0.3951  0.0035 -0.2481 122   6  81
 -0.4261  0.0048 -0.2462 122   6  81
 -0.3997  0.0037 -0.2599 122   6  81
 -0.4285  0.0047 -0.2579 122   6  81
 -0.4036  0.0039 -0.2711 122   6  81
 -0.4313  0.0047 -0.2689 122   6  81
 -0.4070  0.0039 -0.2821 122   6  81
 -0.4346  0.0048 -0.2797 122   6  81
 -0.4101  0.0040 -0.2932 122   6  81
 -0.4385  0.0048 -0.2906 122   6  81
 -0.4128  0.0041 -0.3050 122   6  81
 -0.4433  0.0049 -0.3019 122   6  81
 -0.4154  0.0041 -0.3178 122   6  81
 -0.4491  0.0050 -0.3141 122   6  81
 -0.4176  0.0041 -0.3322 122   6  81
 -0.4567  0.0052 -0.3276 122   6  81
 -0.4195  0.0041 -0.3493 122   6  81
 -0.4667  0.0054 -0.3432 122   6  81
 -0.4206  0.0041 -0.3705 122   6  81
 -0.4810  0.0056 -0.3617 122   6  81
 -0.4202  0.0041 -0.3981 122   6  81
 -0.5026  0.0061 -0.3847 122   6  81
 -0.4160  0.0039 -0.4368 122   6  81
 -0.5384  0.0068 -0.4135 122   6  81
 -0.4018  0.0034 -0.4954 122   6  81
 -0.6047  0.0079 -0.4482 122   6  81
 -0.3560  0.0021 -0.5922 122   6  81
 -0.7447  0.0091 -0.4717 122   6  81
 -0.1887 -0.0017 -0.7527 122   6  81
 -1.0515 -0.0032 -0.3342 122   6  81
  0.4734  0.0124 -0.7529 122   6  81
 -0.8628 -0.0116 -0.7631 122   6  81
 -0.3586  0.0108 -1.3670 122   6  81
  0.0000  0.0000  0.0000 122   6  81
  0.0245 -0.1300 -0.3853   6  33  98
  0.1841  0.0631 -0.3924   6  33  98
 -0.0295 -0.0558 -0.4431   6  33  98
  0.1705 -0.1435 -0.3464   6  33  98
  0.0502  0.0847 -0.4448   6  33  98
  0.1526 -0.1496 -0.3780   6  33  98
  0.0602  0.1126 -0.4519   6  33  98
  0.1665 -0.1409 -0.4058   6  33  98
  0.0427  0.1309 -0.4675   6  33  98
  0.2233 -0.1023 -0.4191   6  33  98
 -0.0132  0.1028 -0.4963   6  33  98
  0.2900  0.0750 -0.3932   6  33  98
  0.0054 -0.0161 -0.5260   6  33  98
  0.2828  0.1819 -0.3082   6  33  98
  0.0696  0.0318 -0.4977   6  33  98
 -0.0961 -0.1675 -0.3666   6  33  98
  0.1112 -0.0684 -0.4320   6  33  98
 -0.0143  0.1668 -0.4032   6  33  98
  0.1947  0.0382 -0.4254   6  33  98
 -0.0690 -0.0382 -0.4592   6  33  98
 -0.0466 -0.1580 -0.3628   6  33  98
  0.1499 -0.0413 -0.4100   6  33  98
 -0.0615  0.0891 -0.4179   6  33  98
  0.1199  0.1677 -0.3809   6  33  98
  0.0953 -0.0816 -0.4475   6  33  98
  0.0338  0.1977 -0.4027   6  33  98
  0.1772 -0.0251 -0.4520   6  33  98
 -0.1034  0.0632 -0.4522   6  33  98
 -0.0243  0.1843 -0.4000   6  33  98
  0.1832  0.0479 -0.4391   6  33  98
 -0.0747 -0.0615 -0.4568   6  33  98
  0.0236 -0.1801 -0.3788   6  33  98
  0.1689  0.0439 -0.4280   6  33  98
 -0.0713 -0.0590 -0.4398   6  33  98
  0.0275 -0.1662 -0.3718   6  33  98
  0.1661  0.0508 -0.4157   6  33  98
 -0.0561 -0.0644 -0.4348   6  33  98
  0.0872 -0.1647 -0.3647   6  33  98
  0.1173  0.0967 -0.4263   6  33  98
  0.0318 -0.1403 -0.4201   6  33  98
  0.2026  0.0826 -0.4113   6  33  98
 -0.0246 -0.0694 -0.4704   6  33  98
  0.2299 -0.1204 -0.3597   6  33  98
  0.0268  0.0664 -0.4771   6  33  98
  0.2221 -0.1392 -0.3587   6  33  98
  0.0360  0.0694 -0.4785   6  33  98
  0.1905 -0.1668 -0.3652   6  33  98
  0.0530  0.0841 -0.4753   6  33  98
  0.1554 -0.1795 -0.3849   6  33  98
  0.0752  0.1063 -0.4732   6  33  98
  0.1309 -0.1798 -0.4136   6  33  98
  0.0995  0.1312 -0.4744   6  33  98
  0.1154 -0.1752 -0.4466   6  33  98
  0.1235  0.1582 -0.4778   6  33  98
  0.1078 -0.1670 -0.4822   6  33  98
  0.1416  0.1913 -0.4821   6  33  98
  0.1134 -0.1527 -0.5199   6  33  98
  0.1298  0.2396 -0.4882   6  33  98
  0.1518 -0.1221 -0.5564   6  33  98
  0.0039  0.2808 -0.5072   6  33  98
  0.2404  0.0105 -0.5752   6  33  98
 -0.2098 -0.0084 -0.5673   6  33  98
 -0.2147 -0.0068 -0.5287   6  33  98
 -0.1707  0.0007 -0.5175   6  33  98
 -0.1766  0.0173 -0.4671   6  33  98
 -0.1211  0.0517 -0.4562   6  33  98
 -0.0698  0.1532 -0.4105   6  33  98
  0.1542  0.1211 -0.4286   6  33  98
  0.0277 -0.1258 -0.4585   6  33  98
  0.2378  0.0969 -0.4085   6  33  98
 -0.0101 -0.0551 -0.5002   6  33  98
  0.2932 -0.0720 -0.3465   6  33  98
  0.0365  0.0288 -0.4996   6  33  98
  0.0043 -0.2252 -0.3369   6  33  98
  0.1248  0.0178 -0.4422   6  33  98
 -0.1103 -0.0348 -0.4019   6  33  98
 -0.0592 -0.0696 -0.3834   6  33  98
  0.0844 -0.1215 -0.3605   6  33  98
  0.0998  0.1167 -0.3970   6  33  98
  0.0829 -0.1170 -0.4124   6  33  98
  0.1118  0.1564 -0.4087   6  33  98
  0.1043 -0.1076 -0.4475   6  33  98
  0.0678  0.1931 -0.4246   6  33  98
  0.1701 -0.0711 -0.4642   6  33  98
 -0.0655  0.1445 -0.4616   6  33  98
  0.1860  0.1567 -0.4369   6  33  98
  0.0398 -0.1144 -0.5029   6  33  98
  0.2490  0.1632 -0.4122   6  33  98
  0.0297 -0.0591 -0.5359   6  33  98
  0.2309  0.2423 -0.3613   6  33  98
  0.0630 -0.0031 -0.5323   6  33  98
 -0.2159  0.0427 -0.3576   6  33  98
 -0.0113  0.0456 -0.4478   6  33  98
  0.2374  0.1082 -0.3325   6  33  98
  0.0343 -0.0167 -0.4639   6  33  98
 -0.0696  0.1838 -0.3258   6  33  98
  0.1127  0.0601 -0.4184   6  33  98
 -0.0263 -0.1164 -0.3973   6  33  98
  0.1918 -0.0463 -0.3853   6  33  98
 -0.0353  0.0654 -0.4425   6  33  98
  0.1665  0.1745 -0.3562   6  33  98
  0.0653 -0.0532 -0.4622   6  33  98
  0.0204  0.2177 -0.3683   6  33  98
  0.1485 -0.0009 -0.4515   6  33  98
 -0.1196  0.0176 -0.4245   6  33  98
 -0.0964  0.0631 -0.3931   6  33  98
  0.0055  0.1448 -0.3810   6  33  98
  0.1859  0.0059 -0.4008   6  33  98
 -0.0637  0.0074 -0.4395   6  33  98
 -0.1219  0.0587 -0.3468   6  33  98
 -0.0015  0.0951 -0.3843   6  33  98
  0.2007  0.0197 -0.3635   6  33  98
 -0.0276 -0.0024 -0.4370   6  33  98
 -0.1253 -0.0170 -0.3146   6  33  98
 -0.0179 -0.0067 -0.3700   6  33  98
 -0.0406 -0.0746 -0.3045   6  33  98
  0.1086 -0.0564 -0.3421   6  33  98
  0.0034  0.0989 -0.3741   6  33  98
  0.1920  0.0064 -0.3645   6  33  98
 -0.0336  0.0090 -0.4305   6  33  98
 -0.0971  0.1078 -0.3204   6  33  98
  0.0707  0.0965 -0.3834   6  33  98
  0.1022 -0.1111 -0.3821   6  33  98
  0.0724  0.1382 -0.4058   6  33  98
  0.1421 -0.0999 -0.4170   6  33  98
  0.0134  0.1507 -0.4353   6  33  98
  0.2261 -0.0141 -0.4221   6  33  98
 -0.0637  0.0312 -0.4816   6  33  98
 -0.0773  0.1945 -0.3588   6  33  98
  0.1239  0.0737 -0.4406   6  33  98
 -0.0206 -0.1369 -0.4174   6  33  98
  0.2103 -0.0303 -0.4060   6  33  98
 -0.0527  0.0492 -0.4629   6  33  98
  0.0481  0.2241 -0.3572   6  33  98
  0.1306 -0.0154 -0.4541   6  33  98
 -0.1216  0.0593 -0.4098   6  33  98
 -0.0300  0.1334 -0.4013   6  33  98
  0.1908  0.0763 -0.4001   6  33  98
 -0.0232 -0.0659 -0.4549   6  33  98
  0.2194 -0.1114 -0.3539   6  33  98
  0.0239  0.0676 -0.4646   6  33  98
  0.2260 -0.1171 -0.3571   6  33  98
  0.0259  0.0666 -0.4722   6  33  98
  0.2226 -0.1319 -0.3580   6  33  98
  0.0327  0.0691 -0.4757   6  33  98
  0.2017 -0.1552 -0.3631   6  33  98
  0.0450  0.0803 -0.4752   6  33  98
  0.1757 -0.1700 -0.3779   6  33  98
  0.0594  0.0984 -0.4751   6  33  98
  0.1612 -0.1727 -0.3996   6  33  98
  0.0693  0.1191 -0.4792   6  33  98
  0.1662 -0.1677 -0.4224   6  33  98
  0.0632  0.1381 -0.4899   6  33  98
  0.2039 -0.1488 -0.4392   6  33  98
  0.0227  0.1385 -0.5122   6  33  98
  0.2920 -0.0622 -0.4341   6  33  98
 -0.0286  0.0559 -0.5496   6  33  98
  0.2365  0.2572 -0.3594   6  33  98
  0.0627  0.0084 -0.5416   6  33  98
 -0.2171 -0.0605 -0.3590   6  33  98
 -0.0047 -0.0250 -0.4522   6  33  98
  0.2523 -0.0581 -0.3134   6  33  98
  0.0341  0.0291 -0.4527   6  33  98
  0.0302 -0.1850 -0.3309   6  33  98
  0.1327  0.0391 -0.4145   6  33  98
 -0.0662 -0.0673 -0.4051   6  33  98
  0.0648 -0.1397 -0.3669   6  33  98
  0.1338  0.1000 -0.4034   6  33  98
  0.0240 -0.1140 -0.4252   6  33  98
  0.2151  0.0830 -0.3895   6  33  98
 -0.0109 -0.0508 -0.4700   6  33  98
  0.2611 -0.0741 -0.3392   6  33  98
  0.0269  0.0371 -0.4746   6  33  98
  0.1316 -0.1966 -0.3339   6  33  98
  0.0833  0.0668 -0.4484   6  33  98
  0.0208 -0.1697 -0.3861   6  33  98
  0.1785  0.0444 -0.4225   6  33  98
 -0.0657 -0.0523 -0.4458   6  33  98
  0.0193 -0.1714 -0.3653   6  33  98
  0.1632  0.0384 -0.4164   6  33  98
 -0.0679 -0.0494 -0.4301   6  33  98
  0.0074 -0.1539 -0.3626   6  33  98
  0.1694  0.0257 -0.4021   6  33  98
 -0.0643 -0.0239 -0.4282   6  33  98
 -0.0732 -0.1013 -0.3491   6  33  98
  0.0954 -0.0855 -0.3777   6  33  98
  0.0483  0.1409 -0.3872   6  33  98
  0.1630 -0.0630 -0.4057   6  33  98
 -0.0371  0.1057 -0.4322   6  33  98
  0.1982  0.1242 -0.3872   6  33  98
  0.0206 -0.0703 -0.4716   6  33  98
  0.2447  0.1328 -0.3595   6  33  98
  0.0339 -0.0280 -0.4906   6  33  98
  0.0166  0.2497 -0.3335   6  33  98
  0.1103  0.0090 -0.4574   6  33  98
 -0.1322 -0.0165 -0.3917   6  33  98
 -0.0694 -0.0178 -0.3948   6  33  98
 -0.0699 -0.0573 -0.3470   6  33  98
  0.0401 -0.0946 -0.3531   6  33  98
  0.1415  0.0975 -0.3630   6  33  98
  0.0257 -0.0802 -0.4151   6  33  98
  0.1966  0.1115 -0.3603   6  33  98
  0.0217 -0.0522 -0.4533   6  33  98
  0.2047  0.1589 -0.3416   6  33  98
  0.0498 -0.0326 -0.4675   6  33  98
 -0.0239  0.2124 -0.3461   6  33  98
  0.1344  0.0319 -0.4384   6  33  98
 -0.0925 -0.0624 -0.4115   6  33  98
  0.0033 -0.1300 -0.3822   6  33  98
  0.1912  0.0219 -0.3898   6  33  98
 -0.0498 -0.0106 -0.4404   6  33  98
 -0.1128 -0.0622 -0.3353   6  33  98
  0.0110 -0.0656 -0.3768   6  33  98
  0.1922  0.0603 -0.3406   6  33  98
  0.0002 -0.0277 -0.4276   6  33  98
  0.2442  0.0181 -0.3141   6  33  98
  0.0239  0.0097 -0.4442   6  33  98
 -0.0788 -0.1218 -0.3133   6  33  98
  0.0938 -0.0549 -0.3813   6  33  98
 -0.0032  0.1319 -0.3733   6  33  98
  0.1839  0.0214 -0.3889   6  33  98
 -0.0517 -0.0114 -0.4344   6  33  98
 -0.1064 -0.0630 -0.3364   6  33  98
  0.0151 -0.0704 -0.3737   6  33  98
  0.1848  0.0704 -0.3442   6  33  98
  0.0028 -0.0374 -0.4266   6  33  98
  0.2406  0.0427 -0.3224   6  33  98
  0.0206  0.0002 -0.4480   6  33  98
 -0.1381  0.0119 -0.3089   6  33  98
 -0.0129  0.0285 -0.3760   6  33  98
  0.1545  0.1212 -0.3139   6  33  98
  0.0479 -0.0429 -0.4137   6  33  98
  0.0438  0.1814 -0.3436   6  33  98
  0.1362 -0.0226 -0.4187   6  33  98
 -0.0857  0.0658 -0.4060   6  33  98
  0.0226  0.1633 -0.3782   6  33  98
  0.1736 -0.0160 -0.4151   6  33  98
 -0.0774  0.0413 -0.4352   6  33  98
 -0.0390  0.1663 -0.3668   6  33  98
  0.1565  0.0622 -0.4157   6  33  98
 -0.0429 -0.0838 -0.4305   6  33  98
  0.1653 -0.1277 -0.3715   6  33  98
  0.0383  0.1067 -0.4456   6  33  98
  0.2054 -0.1027 -0.3915   6  33  98
  0.0019  0.0958 -0.4702   6  33  98
  0.2739  0.0072 -0.3805   6  33  98
 -0.0075  0.0117 -0.4989   6  33  98
  0.1664  0.2412 -0.3043   6  33  98
  0.0645  0.0091 -0.4688   6  33  98
 -0.1449 -0.0443 -0.3515   6  33  98
 -0.0213 -0.0408 -0.3970   6  33  98
  0.1512 -0.1120 -0.3270   6  33  98
  0.0413  0.0838 -0.4135   6  33  98
  0.1610 -0.1132 -0.3676   6  33  98
  0.0295  0.1061 -0.4351   6  33  98
  0.2139 -0.0760 -0.3863   6  33  98
 -0.0136  0.0770 -0.4658   6  33  98
  0.2602  0.0878 -0.3633   6  33  98
  0.0171 -0.0189 -0.4899   6  33  98
  0.0855  0.2537 -0.3154   6  33  98
  0.0843 -0.0014 -0.4592   6  33  98
 -0.1416  0.0223 -0.3678   6  33  98
 -0.0471  0.0507 -0.3958   6  33  98
  0.0733  0.1669 -0.3452   6  33  98
  0.1202 -0.0479 -0.4163   6  33  98
 -0.0515  0.1230 -0.3982   6  33  98
  0.1608  0.1158 -0.3966   6  33  98
  0.0247 -0.0965 -0.4476   6  33  98
  0.2292  0.1067 -0.3796   6  33  98
